173.215,30.746,37.462,2,2,4,
96.594,7.819,11.821,2,2,4,
129.579,7.537,14.599,2,2,4,
140.595,6.56,11.27,2,2,4,
127.348,6.889,13.596,2,2,4,
128.812,6.312,14.259,2,2,4,
123.684,6.23,13.739,2,2,4,
123.86,6.654,14.086,2,2,4,
122.722,6.224,13.85,2,2,4,
123.949,6.451,13.858,2,2,4,
284.005,7.138,14.092,3,3,4,
273.098,7.113,13.971,3,3,4,
281.945,33.031,13.778,3,3,4,
273.723,7.39,13.911,3,3,4,
279.415,7.025,13.883,3,3,4,
272.751,7.076,13.466,3,3,4,
279.233,7.118,13.908,3,3,4,
279.924,7.551,14.297,3,3,4,
271.182,7.014,13.935,3,3,4,
272.86,6.866,13.881,3,3,4,
280.407,7.14,13.991,3,3,4,
282.236,7.389,13.818,3,3,4,
275.063,7.382,13.914,3,3,4,
273.73,7.31,13.712,3,3,4,
273.256,7.339,13.645,3,3,4,
272.988,7.171,13.549,3,3,4,
309.097,7.139,13.973,3,3,4,
274.593,7.461,13.699,3,3,4,
273.77,7.093,13.763,3,3,4,
273.469,7.202,13.548,3,3,4,
275.204,7.529,14.236,3,4,4,
275.832,7.755,14.267,3,4,4,
280.949,7.293,14.129,3,4,4,
278.914,7.666,14.119,3,4,4,
274.492,7.368,14.382,3,4,4,
279.615,7.412,14.16,3,4,4,
282.07,7.573,14.249,3,4,4,
275.112,7.469,14.159,3,4,4,
274.216,7.324,13.806,3,4,4,
275.357,7.254,13.911,3,4,4,
118.389,6.207,13.798,2,2,4,
127.555,7.343,13.6,2,2,4,
119.405,7.082,13.955,2,2,4,
123.629,6.666,13.603,2,2,4,
118.512,6.645,13.774,2,2,4,
122.952,6.565,13.596,2,2,4,
150.456,6.734,13.646,2,2,4,
123.997,6.828,13.427,2,2,4,
117.537,6.796,13.988,2,2,4,
122.228,6.641,13.519,2,2,4,
275.715,7.538,13.984,3,3,4,
281.157,7.458,13.669,3,3,4,
283.792,7.58,11.228,3,3,4,
280.536,8.007,13.366,3,3,4,
275.538,7.623,13.951,3,3,4,
273.608,7.65,13.939,3,3,4,
297.203,7.541,13.823,3,3,4,
274.583,7.506,13.818,3,3,4,
289.977,7.583,12.628,3,3,4,
279.756,7.435,14.175,3,3,4,
274.065,7.697,14.097,3,4,4,
274.771,7.873,14.111,3,4,4,
280.567,7.315,13.589,3,4,4,
274.346,7.394,13.696,3,4,4,
276.527,7.5,12.236,3,4,4,
277.726,8.487,13.589,3,4,4,
274.712,7.636,13.944,3,4,4,
273.962,7.807,13.831,3,4,4,
280.699,7.487,13.914,3,4,4,
274.375,7.636,13.989,3,4,4,
278.271,7.418,13.762,3,3,4,
274.537,7.118,13.904,3,3,4,
279.736,6.969,13.416,3,3,4,
284.949,7.066,13.863,3,3,4,
302.896,7.126,13.794,3,3,4,
283.502,7.394,13.795,3,3,4,
280.314,7.225,13.84,3,3,4,
282.82,6.948,13.589,3,3,4,
280.912,6.888,13.797,3,3,4,
288.865,28.602,11.19,3,3,4,
125.591,6.836,13.517,2,2,4,
124.741,6.483,13.956,2,2,4,
119.818,6.384,14.024,2,2,4,
125.253,6.173,13.699,2,2,4,
119.16,6.005,14.083,2,2,4,
125.835,6.313,13.912,2,2,4,
118.864,6.205,14.285,2,2,4,
124.267,6.175,13.728,2,2,4,
119.081,6.211,13.859,2,2,4,
128.04,6.188,13.554,2,2,4,
119.279,6.276,14.494,2,2,4,
123.939,6.633,14.148,2,2,4,
118.398,6.291,14.393,2,2,4,
124.664,6.335,14.18,2,2,4,
119.583,6.297,14.076,2,2,4,
123.178,6.199,13.81,2,2,4,
142.935,6.328,14.248,2,2,4,
124.256,6.454,14.328,2,2,4,
119.279,6.244,14.209,2,2,4,
123.593,6.227,14.118,2,2,4,
2934.98,11.761,21.074,4,5,6,
2961.54,11.417,21.356,4,5,6,
2921.97,11.74,21.497,4,5,6,
2950.58,11.645,21.449,4,5,6,
2909.34,11.819,21.595,4,5,6,
2894,11.632,21.33,4,5,6,
2894.1,11.825,21.77,4,5,6,
2917.41,11.537,21.247,4,5,6,
2912.23,11.794,21.454,4,5,6,
2921.6,12.39,21.604,4,5,6,
131137,14.678,24.901,6,8,10,
130848,16.379,26.543,6,8,10,
108764,16.148,26.995,6,8,10,
130759,14.179,22.611,6,8,10,
109033,15.946,25.978,6,8,10,
108815,16.487,25.343,6,8,10,
130849,16.392,25.838,6,8,10,
108844,15.953,25.916,6,8,10,
130709,16.081,25.307,6,8,10,
130755,15.814,25.677,6,8,10,
31435.5,13.568,23.528,5,5,6,
37701.2,12.718,22.483,5,5,6,
37733.4,12.786,22.347,5,5,6,
37698,12.65,22.729,5,5,6,
31416.9,11.34,20.173,5,5,6,
37773.5,11.565,20.426,5,5,6,
31349.5,12.66,21.368,5,5,6,
37731.8,12.807,22.052,5,5,6,
37707.4,12.915,22.422,5,5,6,
31406.5,12.836,24.733,5,5,6,
2823.01,10.718,20.611,4,4,6,
2356.31,11.078,21.843,4,4,6,
2851.03,10.514,19.408,4,4,6,
2390.08,10.969,22.668,4,4,6,
2847.91,10.32,19.594,4,4,6,
2355.86,11.052,22.486,4,4,6,
2814.39,10.863,22.46,4,4,6,
2370.98,11.28,22.046,4,4,6,
2849.47,10.886,22.297,4,4,6,
2375.53,11.47,22.192,4,4,6,
19548.4,12.616,22.702,5,6,8,
16373.3,13.294,23.209,5,6,8,
19586.8,13.536,23.344,5,6,8,
19555.9,13.297,22.993,5,6,8,
16312,13.331,23.246,5,6,8,
19572.3,13.37,23.496,5,6,8,
16308,13.403,22.978,5,6,8,
19570.2,13.212,23.005,5,6,8,
16268.9,13.35,23.733,5,6,8,
19599.9,13.594,23.126,5,6,8,
12949.6,13.704,24.81,5,7,10,
15587.7,14.067,24.483,5,7,10,
12974.2,13.701,24.47,5,7,10,
15585.3,13.821,28.897,5,7,10,
12972,13.563,24.12,5,7,10,
15576.5,12.998,22.179,5,7,10,
12984,16.423,24.665,5,7,10,
15570.3,13.038,21.789,5,7,10,
13002,13.997,26.355,5,7,10,
15605.1,13.068,21.945,5,7,10,
25711.6,14.276,21.738,5,7,6,
30930.8,13.313,19.951,5,7,6,
25716.4,14.265,23.656,5,7,6,
30920.7,14.035,22.089,5,7,6,
30874.5,14.236,22.089,5,7,6,
30893.4,14.402,22.024,5,7,6,
30947.8,13.94,24.555,5,7,6,
30929.7,14.219,22.499,5,7,6,
25687.6,14.413,23.005,5,7,6,
30945.7,14.252,22.288,5,7,6,
16214.6,13.365,23.54,5,6,8,
19451.9,13.288,23.52,5,6,8,
19416.7,12.673,23.551,5,6,8,
19441.4,13.315,23.511,5,6,8,
19441.3,12.612,23.432,5,6,8,
19431.2,12.549,23.186,5,6,8,
19427.3,12.406,23.542,5,6,8,
19463.4,13.027,23.232,5,6,8,
16200.9,13.044,24.045,5,6,8,
19443.7,11.964,20.836,5,6,8,
2376.11,13.584,22.059,4,6,8,
2829.91,12.379,19.985,4,6,8,
2361.07,12.94,22.491,4,6,8,
2818.39,12.173,19.237,4,6,8,
2342.01,13.128,21.621,4,6,8,
2835.67,12.62,22.153,4,6,8,
2366.75,13.202,21.908,4,6,8,
2826.41,14.409,22.495,4,6,8,
2362.4,13.326,22.032,4,6,8,
2805.69,12.977,22.244,4,6,8,
9938.46,13.462,22.118,5,6,6,
11975.5,13.345,22.173,5,6,6,
9994.07,13.434,22.409,5,6,6,
11964.3,12.284,19.949,5,6,6,
9978.73,13.295,22.264,5,6,6,
11990.1,12.178,19.65,5,6,6,
9948.46,14.034,22.131,5,6,6,
11974.3,12.646,19.658,5,6,6,
9962.08,13.31,22.669,5,6,6,
11992.9,12.285,20.473,5,6,6,
1.4133e+06,17.047,29.188,7,7,8,
948555,17.456,28.468,7,7,8,
932857,13.205,45.386,7,7,8,
891247,13.538,31.164,7,7,8,
879136,29.484,39.608,7,7,8,
889516,26.95,39.72,7,7,8,
876015,16.998,27.139,7,7,8,
886631,17.832,42.551,7,7,8,
869603,13.392,52.796,7,7,8,
887932,14.891,63.539,7,7,8,
1.50838e+06,18.157,57.373,7,11,12,
1.55813e+06,16.196,48.582,7,11,12,
1.55817e+06,15.041,40.322,7,11,12,
1.52533e+06,15.936,49.35,7,11,12,
1.51923e+06,18.221,58.316,7,11,12,
1.58484e+06,16.355,49.093,7,11,12,
1.53952e+06,15.982,49.382,7,11,12,
1.54686e+06,16.48,58.269,7,11,12,
1.57904e+06,21.078,34.319,7,11,12,
1.67972e+06,21.312,35.999,7,11,12,
1.34913e+07,20.731,58.283,8,14,10,
1.34547e+07,17.389,48.682,8,14,10,
1.35044e+07,30.99,43.519,8,14,10,
1.35179e+07,17.882,56.252,8,14,10,
1.34589e+07,17.169,23.642,8,14,10,
1.37223e+07,36.435,43.066,8,14,10,
1.36229e+07,31.573,45.653,8,14,10,
1.34506e+07,23.422,30.475,8,14,10,
1.35033e+07,23.409,29.989,8,14,10,
1.36184e+07,23.139,29.847,8,14,10,
3.93212e+07,22.429,34.99,8,11,12,
3.91973e+07,15.56,87.375,8,11,12,
3.9287e+07,20.566,31.55,8,11,12,
3.92625e+07,20.899,31.409,8,11,12,
3.94544e+07,30.192,45.533,8,11,12,
3.91636e+07,16.111,39.276,8,11,12,
5.88551e+07,15.943,47.759,8,11,12,
3.96186e+07,15.872,36.302,8,11,12,
3.91932e+07,21.042,38.589,8,11,12,
3.92412e+07,18.087,59.117,8,11,12,
1.45692e+06,14.1,49.323,7,9,10,
1.49379e+06,14.338,37.24,7,9,10,
1.43185e+06,18.53,30.731,7,9,10,
1.44108e+06,18.452,29.635,7,9,10,
1.41642e+06,16.445,55.605,7,9,10,
1.41837e+06,29.808,44.91,7,9,10,
1.5002e+06,27.902,60.217,7,9,10,
1.41646e+06,14.677,57.68,7,9,10,
1.44372e+06,28.181,40.765,7,9,10,
1.42813e+06,14.859,57.476,7,9,10,
1.88422e+07,21.541,30.264,8,11,12,
1.88601e+07,19.468,50.234,8,11,12,
1.8843e+07,16.324,55.984,8,11,12,
1.89625e+07,21.168,30.346,8,11,12,
1.87868e+07,20.755,45.307,8,11,12,
1.8817e+07,21.655,30.076,8,11,12,
1.88076e+07,21.771,45.453,8,11,12,
1.88212e+07,15.99,49.707,8,11,12,
1.87677e+07,16.476,57.722,8,11,12,
1.87561e+07,21.334,31.574,8,11,12,
1.18973e+07,13.641,33.899,8,8,14,
1.19351e+07,16.871,30.997,8,8,14,
1.212e+07,20.431,60.446,8,8,14,
1.23707e+07,13.056,38.324,8,8,14,
1.20372e+07,28.267,36.432,8,8,14,
1.18853e+07,16.337,58.258,8,8,14,
1.19102e+07,14.385,41.915,8,8,14,
1.18969e+07,17.995,54.353,8,8,14,
1.22452e+07,14.416,36.957,8,8,14,
1.20044e+07,15.771,50.986,8,8,14,
950005,32.689,34.579,7,9,10,
963526,15.414,45.895,7,9,10,
962798,20.287,29.09,7,9,10,
957563,15.834,22.347,7,9,10,
944159,16.479,39.048,7,9,10,
945819,18.359,48.478,7,9,10,
960681,15.701,55.811,7,9,10,
988370,19.809,29.513,7,9,10,
975732,20.21,29.581,7,9,10,
947920,31.18,35.31,7,9,10,
120285,13.826,51.103,6,7,10,
154750,17.493,27.904,6,7,10,
119905,29.222,33.02,6,7,10,
120571,14.717,54.758,6,7,10,
120010,15.987,32.54,6,7,10,
164498,27.163,39.383,6,7,10,
211487,18.134,27.266,6,7,10,
120191,15.47,33.008,6,7,10,
133742,13.683,53.792,6,7,10,
119955,15.581,49.715,6,7,10,
1.87613e+06,28.747,43.356,7,11,12,
1.8665e+06,16.013,50.231,7,11,12,
1.86322e+06,15.439,44.653,7,11,12,
1.88158e+06,32.62,38.438,7,11,12,
1.8892e+06,19.384,31.389,7,11,12,
1.87785e+06,17.782,51.235,7,11,12,
1.86592e+06,15.328,42.88,7,11,12,
1.90182e+06,19.667,30.803,7,11,12,
1.96007e+06,21.036,44.976,7,11,12,
1.88027e+06,19.648,54.698,7,11,12,
